-64.125,37.338001,41.112
-54.301003,38.181,46.932999
-50.582001,38.360001,46.183998
-44.382999,37.362003,44.342999
-66.688004,37.312,36.309998
-32.016003,38.405003,51.047001
-27.414,39.868,53.805
-26.390999,38.293999,53.663002
-20.827999,38.134998,53.010002
-14.664,38.171001,50.915001
-9.717,39.077999,49.545002
-67.5,37.077999,32.441002
-41.163002,40.872002,42.619999
-39.397999,37.688999,42.951
-35.417999,38.940002,47.535
-22.348,39.678997,53.920998
-3.996,38.047001,47.634998
10.101,38.043999,44.855
17.705999,39.167004,43.18
-68.370995,37.237,12.329
-67.75,35.870998,14.301001
-67.25,37.764999,32.186001
-66.75,38.168999,35.992001
-65.828003,38.889999,38.185997
-60.890999,38.02,44.704998
-58.015999,38.148003,46.627998
-67.5,36.610001,14.427999
-67,36.597,14.301001
-66.5,38.895,36.116997
21.084,38.612999,40.553001
23.023001,38.961998,37.813999
26.375,38.252998,28.324001
-71.512001,38.415001,8.721
-66.75,39.540001,35.480999
-66.25,39.606998,36.116001
0.73,38.52,46.598
24.625,38.913998,32.914001
30.145,38.295998,25.315001
-61.895,40.805,43.122002
-37.965,41.436001,43.34
-33.667999,42.792,48.542999
-31.752001,41.040001,51.056999
-28.25,42.585999,52.212997
-6.201,41.126999,48.674999
24.766001,40.560001,36.288002
27.309,41.747997,32.788002
28.914001,40.021,28.950001
34.43,38.563999,23.583
-57.753998,41.043999,46.156002
-52.370998,41.606998,46.039001
-47.750999,40.665001,44.713001
-35.547001,41.940998,46.176998
-24.898001,43.591,53.305
-21.981998,42.681999,53.646999
-16.505999,41.218002,52.057003
-1.443,42.498997,46.938999
4.971,40.826,45.823997
33.354,43.487999,29.157
37.062,40.889,26.17
-65.085999,42.006001,36.720997
-29.327999,44.962002,50.237
12.823,41.294003,44.827
38.968998,40.391003,23.843
-54.256001,42.635002,45.841999
18.676001,43.494999,43.348
-66.030998,41.575001,35.334999
-63.487999,42.475998,39.446999
-35.672001,45.441002,43.226002
-21.336,45.771999,52.533001
2.363,43.792,45.935001
6.375,44.542,46.154999
24.984001,42.804001,38.307999
41.421997,41.191998,22.868
-69.434006,41.988998,8.614
-67.125,40.059998,12.657
-66.359001,39.860001,13.81
-65.25,43.727001,34.586002
-64.75,43.778999,35.092999
-61.75,43.813999,41.584
-58.535,44.052998,43.936001
-49.587997,44.544998,43.280003
-44.715,42.998001,43.249001
-9.762,44.463001,49.035
0.109,45.618,47.195999
13.666,44.132,44.330997
35.785,42.327003,28.275
-65.5,42.251999,12.780001
-65,42.240002,12.653
-64.5,44.440998,34.584
-63.813,44.488003,36.834999
-55.992001,45.490002,43.496002
6.953,46.225998,48.411999
10.059,44.752998,45.072998
40.038998,44.380001,29.307001
43.397999,43.833,25.970001
-65.577995,43.140999,11.211
-64.25,42.929001,12.273
-63.75,45.178997,34.837002
-63.249996,45.167,34.710003
-62.749996,45.507999,38.132999
-62.25,45.584,38.892998
-60.313,46.444,39.721001
-42.615002,45.452999,41.347
-30.116999,46.813,47.892998
-25.831999,46.247002,50.850998
-17.836,45.481998,51.534
22.623001,43.308998,40.702999
30.947001,45.060001,31.235001
46.780998,43.586998,22.038
-64,43.630997,12.02
-63.249996,43.605999,11.766
-62.5,43.556,11.259
-62,46.243999,38.384998
-33.114998,45.792999,45.347
-15.277,48.396,47.851002
-6.449,45.981003,47.299999
1.418,46.723,49.068001
11.844,47.903,46.891998
-62.858997,44.677998,11.105
-61.75,44.296001,11.386
-61.25,46.868,37.496002
-60.75,46.93,38.130001
-57.84,47.239002,40.021
-52.984001,47.085999,41.285
-23.688,48.041,50.225002
-12.188,48.289001,48.337002
3.5,48.613998,51.098
-61.5,45.023998,11.386
-61,45.010998,11.26
-60.5,47.455002,36.226997
-60,47.542,37.114002
-59.5,47.616001,37.875
-28.98,49.343002,44.780003
-1.744,49.5,51.492001
8.566,49.286999,50.209999
19.310999,46.362003,42.194
36.646999,47.614002,31.254999
49.796997,45.161999,21.558001
-66.308998,45.228001,7.987
-60.25,45.715,11.006001
-59.75,45.727001,11.133
-59.25,45.702,10.88
-58.75,48.253998,37.112999
-57.312,48.346001,38.063
-56.25,48.376999,38.380001
-23.851999,49.644001,47.318001
-18.941,48.363998,48.952
-6.012,47.954002,49.268997
40.555,46.934002,31.357002
-59,46.417999,10.753
-58.063,46.461002,11.197
-56.5,46.503998,11.64
-56,48.904003,36.477001
-55.5,48.880001,36.223999
-55,48.880001,36.223999
-54.625,48.667999,37.714001
-49.486,47.998997,39.163002
-33.125,51.049,37.739002
-38.178001,46.572998,40.125999
-36.336002,46.052002,40.687
-0.906,52.023003,53.971001
20,48.943001,41.809998
24.855001,47.709,38.818001
45.391003,48.748001,30.231998
48.835999,47.243999,25.591999
-63.266003,47.021,6.605
-55.75,47.243999,11.767
-55.25,47.256001,11.894
-54.75,47.256001,11.894
-54.25,49.130001,31.408001
-53.468998,49.451,31.962
-52.609001,49.285,36.73
-43.170002,49.309998,39.507
-32.613003,49.807999,39.963001
4.992,51.054001,52.632
45.210999,50.586998,31.473
46.264,45.855999,26.385
-60.336002,46.715,9.569
-54.5,48.02,12.274
-54,49.820999,31.153002
-29.719,51.341999,39.648998
-27.358999,51.257,41.545998
-21.289,50.404999,45.610001
-8.293,50.554996,51.274002
8.322,53.277,52.273998
24.953001,51.130001,39.891998
35.588001,51.464001,31.488001
52.152,49.082001,23.910999
53.562,47.292,19.334999
-59.125,49.209,5.369
-57.101002,48.310997,9.844999
-53.75,48.771,12.528001
-53.25,50.391998,29.632
-25.109001,51.337997,42.409
11.773,53.417,50.921001
15.682001,49.222,45.143002
20.961,51.389,43.66
29.876999,46.845001,34.488998
40.244999,50.223999,32.205997
-53.313,50.011002,12.305
-46.254002,51.538002,38.007999
-29.938,52.161999,37.082001
-16.329,51.406998,48.594002
-7.175,53.153999,52.819
14.457001,53.848,48.853001
29.159,53.598999,38.821999
33.907997,53.196999,34.132
50.241001,51.357002,28.005001
-52.085999,51.162998,31.803999
-50.234001,50.390003,36.189999
-36.010998,51.460999,38.547001
-24.405998,52.384998,41.342003
-21.456999,53.25,45.077999
56.387001,50.804001,20.187
-52.813,51.584003,29.060001
-36.479,55.413002,38.890999
-54.390999,49.385998,11.917
-52.75,51.584999,12.015
-52.25,53.190998,29.25
-47.389,53.690002,37.028
-13.708,54.455002,51.127003
2.169,53.288002,53.481003
11.984,57.332001,51.812
18.552999,52.285999,46.243999
45.285,52.986,32.143002
-53,52.297001,12.013
-52.5,53.755997,27.728001
-51.375,55.608997,30.839001
-26.896,55.155998,37.788998
-23.066,56.584999,43.419998
0.412,57.110001,54.572998
20.82,54.108002,46.379997
55.257999,53.097,24.208
-55.378998,52.622002,9.391
-52.75,53.008999,12.011
-52.25,54.508999,28.234999
-29.241999,54.226002,36.346001
25.207001,55.025002,42.584999
30.803001,52.225998,37.069
-57.117001,51.844997,6.896
-53.5,53.661999,11.375
-53,53.709,11.882
-52.5,55.145,27.473999
-49.106998,54.572002,34.936001
-2.561,55.556,54.342003
6.798,57.011002,53.240002
21.122999,56.945999,47.32
24.723999,59.675999,44.718002
30.110001,58.548,40.649998
39.709003,55.207001,31.546999
53.945,55.459,27.282999
57.760002,56.545002,22.669001
58.125,53.549,19.775
-54.055,53.231998,10.814
-53.25,54.409,11.754
-52.75,55.805,26.966
-52.25,55.862999,27.6
-18.75,55.959999,48.982002
-1.656,59.278999,54.716
43.857002,54.474998,32.301003
-57.163998,54.071003,4.651
-55.780998,54.469997,8.536
-53.5,55.086002,11.370999
-53,55.132,11.877999
-52.5,56.558002,27.473001
-15.09,57.898998,51.598999
37.68,56.799999,31.799
42.498997,57.998001,31.344
50.647003,54.671001,29.479
-54,55.745998,10.797999
-53.25,55.831997,11.749001
-52.75,57.252998,27.344999
-52.25,57.356998,28.486
-41.313999,55.144001,39.670002
-38.398003,60.793003,40.853001
-31.207001,55.938999,37.048
-11.404,58.256001,53.355
4.955,59.927002,55.082001
17.360001,62.600002,49.611
22.134001,61.480999,47.115002
34.292999,59.352001,37.965
47.919003,58.607998,31.237001
-57.5,55.737,3.206
-56.75,55.907997,4.932
-55.375,56.285,8.894
-54.5,56.405998,10.226
-54,57.166,18.595001
-53.5,57.349998,20.624001
-53,57.924999,26.963999
-46.596001,60.77,37.785
-43.019001,58.806999,39.917
-34.495998,59.579998,39.269001
-28.219,57.801003,36.860001
-9.68,60.387001,55.178001
-6.723,57.622002,54.198002
52.839001,59.444,28.973
-57.25,56.384998,2.528
-56.75,57.783001,17.579
-55.718998,57.93,19.195999
-53.75,58.151001,21.637001
-53.25,58.127998,21.383001
-52.75,58.667,27.344
-52.016003,59.139999,29.650002
-13.969001,61.43,53.762997
15.473,57.808998,49.493
19.166,59.183998,48.705997
-59.437,58.566002,18.386002
-57.75,58.789997,20.875
-57,58.835999,21.382
-53.687,59.163998,23.063
-23.973,58.652,42.091
-4.664,60.57,55.282997
-63.327999,60.097,19.640001
-59.156002,59.561001,21.563999
-56.187,59.276001,22.333
-55.031002,59.75,23.671999
-53,59.732002,27.407
-29.145,60.947998,37.376999
-23.375,63.348003,43.736
-5.49,63.559002,56.235001
0.119,61.586998,56.257999
9.422,62.138,54.133999
21.516001,64.928001,47.035999
27.382999,61.700001,43.678001
36.486,58.807999,34.681999
55.375,58.249001,26.390999
-58.586002,61.326,25.473
-53.187,61.091,28.768999
5.32,62.848999,55.994999
39.153999,63.743999,33.135002
39.882999,61.873001,30.358999
45.167,61.994999,29.838999
-54.945,62.625,30.146002
-49.917999,60.738003,34.054996
-34.816002,64.253998,40.598999
-19.506001,61.582001,49.261997
-12.179999,63.098,54.775002
6.152,65.457001,55.626999
11.363,61.875999,52.319
31.693998,63.836998,40.619999
34.207001,63.537998,39.198997
-64.758003,61.534,22.088001
-31.431999,63.588001,38.625
41.647999,62.613003,28.747999
59.633003,57.723999,18.629
-68.226997,62.307999,20.074001
-25.828001,61.583,39.82
-21.456999,63.418999,46.877998
58.456997,60.479,22.796999
59.780998,60.514,19.334
-72.172005,63.988998,18.518002
-67.914001,63.831001,23.539999
-27.023001,62.456001,38.391003
14.301001,64.717003,52.069
24.872999,64.790001,44.862
28.17,66.260002,43.012001
36.952999,63.937,36.253002
58.664001,63.993999,22.362
-59.879002,64.199997,30.878
-40.104,65.07,41.579998
-28.281,68.492004,39.301998
-20.033001,67.417,51.607002
-6.237,66.522003,56.101002
0.699,65.690002,56.473999
51.43,62.277,29.327
55.852001,62.254002,26.450998
-65.027,65.465004,29.591999
-54.563,65.048004,34.265999
-51.235001,66.170998,36.200001
-47.175999,65.673004,38.146
-11.264,66.667999,54.703999
4.387,69.421997,55.725998
-71.188004,65.138,21.523001
40.242001,65.540001,30.950001
54.896,64.554001,26.673
60.640999,63.541004,17.456001
-72.547005,66.486,21.243
-6.371,70.330002,56.997002
9.698,68.039001,54.685001
11.896999,72.981003,54.363998
-73.983994,66.924995,19.130999
-70.671997,67.418999,27.427999
-68.18,66.367996,28.044001
-58.168003,69.155998,37.634998
-24.473,67.371002,44.271
-24.078001,69.784996,46.231998
-17.308001,64.598,52.714001
-1.782,70.450996,57.159
15.290999,70.635994,52.604
19.737999,68.981995,49.782001
41.459003,69.100998,29.211
49.014,63.891003,29.106001
-38.215,71.114006,41.917
-9.645,71.335999,56.515999
24.483999,69.082001,45.171997
-73.219002,69.110001,27.577999
-61.022999,67.032005,34.555
-50.324001,70.916,39.338001
-43.568001,65.604004,40.601997
-36.096001,67.867004,41.576
-31.448,69.983994,40.086998
-26.769999,68.228996,40.514
-15.066,67.546005,54.216999
-12.67,71.599998,55.292
21.285,67.346001,48.005001
33.702999,68.406998,39.390999
44.647999,69.463997,23.942999
44.670002,65.940002,26.730999
56.288998,68.737,22.949999
58.312,67.184998,21.631001
59.976997,66.840004,17.885
-67.902,69.151001,33.337997
-55.137001,70.344002,38.871002
-43.009003,71.773003,42.223
-17.787001,72.572998,54.763
28,69.954002,42.575001
47.707001,70.101997,23.256001
58.5,69.104996,19.222
-76.172005,71.019997,26.147001
-70.628998,69.576004,31.618
-24.129,73.306,48.712002
20.152,73.444,50.735001
40.268002,73.149002,32.150997
49.43,68.604996,25.538
52.967999,67.902,25.754
-78.686996,70.251999,18.108
-14.615,73.264,55.659
17.113001,72.672005,51.727001
24.201,71.857994,46.996002
54.058998,70.302002,23.014999
56.843998,71.556999,17.792
-77.875,71.129005,20.091999
-63.497997,72.508003,38.748997
-50.359001,73.294998,41.646
-46.854,69.737,40.477001
-25.959,72.136002,44.337002
-22.104,68.258003,48.93
-22.237999,74.345001,52.479
-7.456,75.854004,57.753998
-4.138,73.537003,58.487999
1.82,76.027,56.940998
31.959002,71.863998,40.662003
59.245998,69.710999,15.776999
-75.042999,72.806,30.98
-27.922001,74.282997,42.436996
36.528999,70.049004,36.959999
47.906002,71.767998,20.313
-80,71.250999,17.327999
-78.5,72.034996,22.441
-77.436996,72.140999,25.807999
-68.828003,72.047005,35.883999
-69.114998,76.286003,38.603001
-59.937,74.004997,41.209999
-55.461002,73.841995,41.435001
-39.156998,74.950005,42.371002
4.496,74.219002,56.421001
37.542999,74.601006,36.113998
43.977001,74.947998,25.261
-79.25,72.515007,19.708
-77.625,73.946999,28.396
-73.028999,73.290001,33.796001
-45.542999,74.263,42.204998
7.061,73.311996,56.260998
16.775002,77.175995,53.282001
31.02,74.040001,42.148003
50.313,72.538002,19.978001
-80.953003,73.640999,17.784
-80.25,73.150002,18.816999
-78.75,73.710999,25.552999
-26.164001,76.226006,47.134003
-0.119,74.210999,57.847
44.914001,72.809006,22.427999
46.905998,72.511002,18.056
48.406002,72.727997,16.944
53.550999,72.226006,20.087999
-82,73.772995,13.477
-81.375,74.663002,19.959002
-80.5,74.964996,23.613001
-79.625,74.348999,24.726
-79.187996,75.383003,26.536001
-77.875,76.289993,30.583
-31.794998,77.074997,41.133003
-29.077999,75.134003,41.009998
-16.895,79.040001,56.813004
-1.778,77.624001,58.32
51.734001,73.579994,17.045
-82,74.625,15.191
-63.042999,76.944,41.570999
-34.368999,73.632004,41.604
-27.805,78.731003,46.202999
-20.755001,77.229996,54.832001
-11.93,77.104004,57.220001
6.031,77.147003,56.092999
23.879002,77.118004,48.966999
27.355,74.577003,44.776001
35.112999,73.848,38.943001
-81.25,75.987999,23.135
-34.175999,80.083,41.901001
-9.223001,79.426994,57.924
-82,76.649002,22.562
-80.625,76.676003,25.056999
-50.214001,76.659996,43.278999
-38.456997,80.003998,43.174
-26.335999,78.466995,48.967999
-24.805,77.667,51.638
6.276,80.317993,55.690002
10.957,79.57,54.617001
26.152,77.021004,46.787003
29.394999,77.587997,44.369999
-83.75,76.980003,17.92
-82.375,77.336998,22.306002
-81.563004,78.323997,27.931999
-57.036999,78.569,43.785
-6.309,80.554001,57.643002
35.007999,76.769997,39.354
36.415001,80.852997,37.719997
39.492001,78.464996,33.743999
46.344002,75.329994,18.360001
-84.719002,78.347,18.378
-83.5,77.987999,21.606001
-82.5,78.018997,21.987001
-79.885002,77.512001,29.416
-76.57,78.243004,34.116997
-53.288002,79.325996,43.896
-42.362999,78.420998,42.830002
-19.93,80.626999,56.706001
-2.339,81.525002,57.536999
-84,79.047997,21.571999
-83.125,79.389,25.800999
-82.25,79.209999,27.962999
-63.116997,80.557007,43.164997
-26.125,80.893997,51.359001
-23.781,80.509003,54.479
14.104,79.714996,53.932999
25.546999,80.473999,47.977001
-48.645,81.671997,44.080997
-46.859001,79.689003,43.403
-45.085999,79.735001,42.351997
-27.828001,81.465996,47.827999
-21.135,84.394997,56.229
-12.89,83.616005,57.389
42.553001,78.847,28.323
45.265999,78.636002,22.499001
-84.625,80.523003,22.302
-83.686996,81.170998,27.091
-82.015999,80.681999,29.806999
-27.883001,83.996994,48.082001
6.009,83.612999,56.463001
21.664,80.791,50.485001
32.788998,79.754005,42.033001
45.5,80.133995,21.857
46.125,79.662003,20.395
46.5,79.329994,11.809
-86.452995,81.859001,17.361
-85.594002,80.149002,18.724001
-79.405998,82.299004,34.063999
-74.734001,80.436996,37.177002
-52.375,83.995995,45.070999
-29.781,81.495003,43.237
10.51,84.913002,54.845001
28.147999,83.444,45.003998
44.468998,81.142998,24.522999
45.75,80.741005,20.584
46.25,79.980003,11.043
-85.187004,81.675003,21.187
-41.021,82.402,42.798
-7.494,83.456001,57.307999
45.5,81.479996,20.964001
-84.5,82.621002,26.434
-73.936996,84.758995,39.443001
-69.332001,81.890999,41.341
-61.080002,84.531998,44.231003
-43.781002,84.706001,43.102997
-35.73,81.692001,43.105999
-31.422001,82.294998,41.735001
-25.82,83.529999,51.961998
-17.77,83.445,57.473
-5.049,87.543999,56.995998
1.551,82.782997,57.299
18.214001,82.151001,51.901001
31.268999,83.534004,42.865002
46.25,81.344002,10.276
-59.021,81.875999,43.632
-54.857002,82.827003,45.154003
-14.960999,81.889,56.921001
45.625,82.483002,20.199001
-84.875,83.604996,24.333
-83.734001,85.598999,28.869999
-81.038994,84.749001,33.011997
-71.099998,87.884003,41.688
-64.843994,84.404999,44.153
-24.289001,84.679001,54.117001
14.174999,87.907997,52.606998
14.734,84.950996,52.184998
35.007999,83.826996,39.393002
40.405998,82.107002,32.747997
-86.25,83.806,18.988001
-56.623001,87.704002,44.693001
-49.417999,85.129997,45.297001
-23.681999,89.101997,52.588001
26.82,87.534004,46.177998
42.502003,84.427002,28.543999
-85.561996,84.934006,24.363001
-46.77,84.592003,44.581001
-36.645,87.049004,43.460999
-31.805,87.139999,43.237999
-25.797001,87.615997,50.778999
-9.997,86.806999,57.169998
5.996,86.724998,56.444
24.429001,85.373001,48.108002
-87.015999,86.225998,22.112001
-85.460999,87.558998,26.327999
-29.247999,86.792,44.753998
9.914,89.169006,54.568001
29.708,88.141998,43.442001
39.349998,85.651001,33.900002
-67.418999,87.474007,43.729
-51.954998,87.544998,45.421997
-47.132999,88.209,44.681
-38.371002,85.626999,43.797001
-27.219,89.233002,47.435997
-0.064,87.546997,56.774002
20.052999,87.130005,49.417999
33.626999,87.162003,41.596001
44.941002,84.565002,22.556999
-88.687004,87.522003,18.416
-53.470001,91.507004,44.660999
-34.645,87.223999,42.998001
-17.109999,88.250999,56.466999
17.875,89.718994,49.003002
-82.896004,90.027,30.941
-80.162003,88.767998,34.507
-74.676003,89.977005,39.887997
-59.645,88.868996,45.113003
-48.897999,91.461998,44.23
-20.077999,89.957001,54.721001
-12.54,89.121002,56.717999
16.496,92.044006,49.857002
42.721001,87.897003,27.124001
-87.780998,88.462997,22.538
-64.375,89.819,44.833
2.692,90.697998,55.533001
22.354,91.571999,48.043003
38.617001,89.406998,34.487003
-77.216995,88.141998,37.784
-57.312,91.784996,45.319
-44.461002,89.786003,42.936001
-15.453,91.994003,55.688999
-10.765,92.236,56.209003
26.521,91.681,45.692001
34.889,91.565994,39.386002
36.145,88.862999,38.338001
41.34,90.57,29.118
-39.987999,88.962006,43.028
14.352,92.113998,51.562
-64.111,95.069,43.418003
-35.050999,91.100998,44.287998
-5.075,92.715004,56.047997
-1.355,94.167,55.132
7.061,92.253998,53.757
43.487999,92.580002,23.962
44.672001,89.540001,21.276001
-78.929001,92.982002,35.424
-69.121002,94.662003,42.210999
-51.091999,93.828003,44.23
-34.765999,95.275002,44.237
-31.863001,91.289993,44.298
-23.927999,92.721001,49.214001
12.535,93.590996,51.493999
-88.909996,90.782997,21.192999
-86.002998,92.591003,27.201
-60.793003,92.050003,45.177002
-48.945,94.332001,44.558998
-45.256001,94.290001,43.109001
-42.217003,94.553001,42.387001
-39.342999,95.983002,42.467999
3.063,93.846001,54.526001
31.311001,90.400002,42.796001
39.905998,92.947998,31.121
44.937,91.237999,14.862
-75.012001,94.825996,39.060001
-32.404003,94.075005,44.597
-27.895,94.274002,44.831001
44.188,92.127998,22.211
-72.278999,94.069,41.118
-68.375,91.914993,42.438
-26.805,92.514,45.049999
-22.921999,95.642998,45.322998
-22.5,94.876999,48.220001
-20.229,93.837997,51.876999
-17.113001,94.125999,53.504002
-8.276999,95.073997,54.761997
2.359,96.235001,53.271
8.254,96.614006,50.386997
13.348001,96.896004,48.702999
25.1,95.778999,45.449001
-56.73,95.016998,44.413998
-30.921999,96.619003,44.769001
43.875,94.398003,21.198
-83.874001,97.623001,29.708
-60.651001,97.088997,43.368999
-49.224998,97.755997,43.848999
-46.238003,97.917999,43.057999
-18.851999,96.773994,48.368
-12.404,96.196007,52.855
-7.438,97.769997,52.328999
-2.064,97.073006,53.282997
19.818001,94.081001,47.652
32.781002,94.522995,40.247002
37.605,94.080002,34.631001
41.655998,94.678001,27.122
44.375,94.330994,15.061001
-89.562996,96.037003,16.178001
-87.894997,94.355003,23.951
-53.121002,97.119003,43.455002
-19.969,97.267998,45.221001
43.25,96.244995,21.870001
-89.171997,95.514,21.066
-86.503998,96.580002,26.271
-73.237,98.089005,39.472
-56.030998,100.018005,42.968998
-26.822001,97.590996,43.900002
-16.344,98.917,44.817001
-10.086,99.142998,49.796001
5.25,98.796005,49.091999
21.311001,99.917999,45.529999
27.479,98.045998,42.454998
29.879,97.079002,41.503002
36.858997,98.379997,33.089001
40.479,97.712006,27.447001
42.25,97.129997,24.305
-80.224998,96.532997,33.902
-14.507999,98.089005,49.058002
2.047,98.973,50.292999
9.016,99.93,47.958
43.688,96.353004,15.511
-89.578003,98.755005,16.931999
-67.415001,99.278,41.465
-35.468002,98.959999,42.706001
-25.586,99.778999,44.186996
-10.016,100.102997,47.437
-2.895,99.178001,50.825001
-0.438,100.195,48.952999
42.562,98.155998,20.825001
43.125,97.473,18.693001
-75.820999,102.038002,36.283001
-59.027,101.986,42.299999
-22.038,99.639999,44.491001
-15.523,100.937004,44.008999
-5.469,100.505997,48.186001
17.480001,101.414001,46.402
43.937,97.568001,12.016999
-10.781,100.615997,44.504002
-3.484,100.973999,44.564003
2.898,100.813004,45.812
14.8,99.407005,47.628002
41.313,99.262001,23.934999
43.125,98.690002,15.262
-88.265999,98.899002,21.858
-65.503998,102.693001,41.083
-63.487999,99.815002,42.227997
-49.93,101.369003,42.149998
-13.32,102.145004,43.569
-5.43,102.278,43.921001
32.486,99.244995,37.909
-82.650002,103.479996,28.972
-72.480995,103.648003,37.606998
-42.695,102.066002,41.483002
12.773,102.793999,46.625
28.262001,101.910004,39.751999
39.91,102.278,25.273998
41.125,101.255997,21.388
42.530998,100.143997,16.744001
-88.375,101.668999,19.393999
-79.566002,100.776001,33.213001
-54.452,103.708,41.327
-19.568001,102.820999,43.419998
-16.895,104.306,42.985001
3.367,103.533997,43.528999
24.601999,101.643005,42.429001
42.031002,101.695999,15.54
-60.382,104.781998,40.895
-47.949001,102.733002,41.170002
-37.007999,102.008003,40.910004
-30.471001,101.525002,42.750999
-0.939,103.415001,44.183002
7.332,102.968002,45.382
38.977001,102.202995,27.450001
-87.436996,105.764999,15.455
-85.487999,100.435005,26.58
-45.021,104.405998,41.239998
7.994,106.119995,42.104
30.293001,102.953003,37.156002
-25.92,104.408005,42.128998
-11.125,105.230003,43.462997
-1.937,106.512001,43.832001
18.917999,104.169006,43.966
41.375,103.063004,15.687
-85.390999,105.559998,21.826
-85.469002,104.230003,24.366001
-69.598,101.998001,39.647003
-52.083,103.081001,41.099998
-40.100998,104.542999,39.540001
23.156,105.757996,39.627998
26,104.896004,38.938999
39.047001,105.346001,24.241001
-74.695,107.193001,36.757999
-54.512001,107.570999,39.549999
-14.313001,105.959999,43.119999
-7.412,105.030998,43.908997
3.238,106.815002,42.440002
22.141001,105.088005,41.526001
31.67,106.839005,34.048
36.882999,105.488998,28.437
40.125,104.087997,20.584
-48.022999,106.498001,39.949997
-45.278999,108.576996,39.042
-10.018001,108.175003,43.310001
11.939,106.668999,42.584999
-86.976997,104.887001,19.259001
-85.937996,106.739998,19.716
-83.948997,107.270004,25.066999
-78.014,105.709999,33.434998
-41.313,107.431999,38.916
-33.746002,105.726006,39.551998
-23.910002,110.476006,39.273998
21.167999,108.071999,39.592999
39.375,106.115997,18.332001
-86.515999,108.07,18.542999
-79,107.991005,31.810001
-78.063004,108.067993,33.112999
-75.875,108.273003,36.609001
-67.714996,108.095001,37.725002
-81.055,107.326004,29.254
-81.25,108.520996,28.632999
-80,108.617996,30.316999
-78.75,108.682999,31.429001
-78.25,109.324997,42.488998
-77.375,109.350006,42.902
-75.625,109.318001,42.362
-74.75,109.044998,37.657997
-63.629002,107.230003,39.026001
-6.23,109.332001,43.355
3.312,110.175995,42.285
17.191,107.187004,41.627003
28.332001,108.043999,36.68
34.653999,103.813995,32.479
35.859001,109.829002,26.457001
37.563,107.289001,25.961
-85.063004,108.278,21.355
-84.5,108.966003,23.931
-83.186996,109.080002,25.900999
-81.5,109.206993,28.125999
-81,110.032997,42.490002
-79.75,110.087997,43.443001
-78.578003,110.423996,44.687
-74.75,110.32,44.420002
-72.844002,109.445,38.445
-70.710999,109.118996,37.403999
-51.07,109.411003,37.967999
-20.554001,108.655998,41.177002
-2.31,110.813995,42.631001
18.559,111.597,38.229
25.273001,108.278999,38.216
32.981998,111.172997,29.348001
-86.25,109.396004,18.848
-85.375,109.477997,20.278
-84.25,109.693001,24.059
-83.75,110.739998,42.490002
-82.437996,110.786995,43.315998
-80.75,110.848999,44.396999
-72.563004,110.693001,44.778
-71.5,110.288002,40.773998
-29.326,108.488998,38.720001
-13.755,112.925003,40.484001
-15.805,108.764,41.953999
-87,110.060997,17.833
-86.5,110.097,18.468
-86,111.426003,42.110001
-84.875,111.487,43.189999
-84,111.519005,43.761997
-74.375,112.198997,48.106998
-71.813004,111.738998,47.669998
-69.937996,111.382004,44.477001
-68.438004,110.903,39.122002
-63.41,111,37.348
-31.945002,111.676003,35.971001
-7.936,112.992004,41.522999
37.437,108.819,22.945
38.155998,108.767998,18.91
-87.25,112.098,41.475002
-86.5,112.18,42.936001
-85.75,112.226006,43.763
-84.016006,112.147003,44.720001
-80.453003,112.613998,45.999001
-68.719002,112.565002,46.708
-66.734001,111.129997,38.035999
-57.324001,110.275002,37.409
-88.359001,113.038002,41.666
-85.734001,113.374001,45.391998
-77.327995,112.657005,47.230003
-66.772995,112.767006,43.579998
-42.112999,112.513,35.677002
3.293,112.639999,41.659
15.349,112.752998,38.518002
36.405998,111.194,20.345001
-83.968994,114.529999,47.215
-74.453003,114.418999,50.673
-71.585999,113.599998,49.970001
-66.120995,114.944,47.377003
-63.194996,113.599998,38.150002
-36.25,110.503998,36.188999
-27.351999,115.947998,32.990002
7.714,110.747002,40.600002
11.472,110.311005,39.804001
23.196001,112.109993,36.368
28.758001,111.718002,33.794003
34.940998,112.056999,25.176001
-81.125,115.306,47.785999
-25.288,111.916,37.372002
-18.511999,115.053001,37.827
20.281,115.400002,35.842999
30.031,116.185005,27.969002
35.375,112.724998,20.316999
-91.25,114.816002,39.317001
-78.186996,115.271004,49.477001
-69.516006,113.600998,49.203999
-57.199001,113.609001,35.737999
-47.703999,112.919998,35.389
-5.129,116.591995,39.778999
-0.822,113.473,41.917
11.436999,115.459999,37.854
25.532,115.000999,33.307999
-92.5,114.412003,18.097
-92,114.391998,17.716
-91.5,115.592003,40.589001
-90.288994,115.654999,42.638
-80.526001,118.382996,49.189003
-71.616997,116.328003,52.098999
-63.507996,115.618996,42.374001
-54.198997,116.236,34.830002
-23.841999,117.324997,33.360001
32.152,114.272995,27.185001
-92.75,115.161003,18.607
-92.25,116.214996,38.938
-91.75,116.327003,41.098
-91.25,116.360001,41.733002
-87.780998,115.638,45.674999
-67.82,117.242004,51.350002
-9.164,116.337997,39.592999
-93,115.915001,19.243999
-92.5,116.975998,39.955002
-91.195,118.006996,43.269001
-83.916,118.538002,48.868
-75.273003,117.684998,52.354
-32.871998,116.752998,31.961002
-20.732,116.821999,35.723999
6.673,117.388,38.474003
-93.25,116.656998,19.626999
-92.75,117.666,39.574001
-92.25,117.763,41.48
-87.512001,118.534996,47.43
-65.022995,118.688004,49.175003
-58.336002,116.222,37.579998
-42.881001,115.746002,33.101997
-3.635,118.625999,38.803001
16.938999,117.243996,35.955997
27.859001,117.928001,28.367001
-93.5,117.385002,19.755001
-93,118.381996,39.702
-71.152,119.148003,53.134003
-51.885002,120.158997,34.281002
-38.521,115.924004,32.672001
-15.636999,117.025002,37.211002
-11.822001,118.345001,37.712997
-1.109,120.226006,37.694
2.326,116.417,39.919998
17.723,119.641998,34.178997
33.047001,115.635002,23.412001
-93.75,118.086998,19.375999
-93.25,119.097,39.829998
-92.75,119.115997,40.210999
-77.783005,119.337997,51.552002
-63.671997,117.82,46.101997
-48.190998,118.597,30.347
4.137,119.493996,37.285999
-94,118.803001,19.25
-93.5,119.806,39.831001
-92.561996,120.167999,41.815998
-88.435997,121.003998,47.125
-67.518005,121.051994,51.988998
-62.565998,120.212006,44.77
-93.75,119.750999,23.952
-93.25,120.534004,40.213001
-90.960999,121.556999,44.5
-74.532005,122.229004,53.220997
-55.130001,120.996994,37.889
-50.211002,117.092995,32.625999
-49.265999,121.597,31.679001
-45.305,121.947998,26.073999
-38.813999,119.852997,29.874001
-23.104,120.277,30.921
-16.375,119.661003,35.238998
-7.68,121.393997,36.111
12.099,119.359001,35.875999
21.487999,120.084999,32.040997
24.621,119.741997,29.532
29.687,119.043999,24.196999
-94,120.481995,24.208
-93.5,121.229996,39.959
-82.711006,122.723,49.550999
-65.117004,122.354996,49.718998
-43.353001,120.166,28.559999
-93.75,121.242996,25.098
-93.25,121.963005,40.467999
-80.280998,123.130005,50.870998
-59.334,119.345001,40.16
-30.684,120.038002,28.265999
-27.641001,121.698997,25.202
-15.636999,122.485001,32.210999
13.828,123.246994,32.409
-94.375,121.542999,23.829
-94,121.960999,25.1
-93.5,122.625,39.452999
-70.327995,123.026001,53.169003
-48.108997,122.657997,29.372999
-37.516003,123.752998,25.184
1.867,123.18,34.389999
-34.768002,121.800995,27.272999
-28.07,123.717003,20.84
-22.741999,122.638,27.018
-18.113001,123.417,29.011
6.992,122.229004,35.142998
20.757999,123.213997,28.254
22.827999,123.603996,25.390999
26.476999,121.587997,23.796999
-93.375,123.819,26.177
-85.840004,122.534996,48.743999
-68.457001,124.733002,51.915001
-60.401997,123.937004,41.966999
-49.899998,125.076996,32.267998
-40.311001,124.888,22.803999
-34.145,124.751999,21.916
-24.875,123.545998,22.605
-11.561,122.620003,34.005001
10.85,123.696999,33.083
17.164,122.994995,30.357
-91.960999,124.123001,42.395
-82.925995,125.816002,51.110001
-80.324005,127.417,52.778
-63.257999,124.086998,45.977997
-46.402,123.416,26.195002
-30.617001,122.93,22.997999
-92.875,124.453003,40.306999
-57.268002,123.946007,40.098
-43.492001,125.05899,21.959
-21.437,124.18,24.128
-17.216999,126.061005,24.548
24.266001,123.733002,22.211
-93.952995,127.075005,22.995998
-94.164001,124.655998,24.143
-92.75,125.696999,27.761999
-92.25,126.249001,40.463001
-91.563004,126.817001,41.191998
-77.398003,124.738998,52.472
-30.358999,125.290009,18.399
-3.012,123.953995,34.042
5.578,125.119003,32.581001
-93,126.407997,27.505999
-92.5,126.914993,39.318001
-44.813,126.323997,21.314999
-26.664,125.745995,16.327999
-22.563,125.660004,20.121
0.652,127.140999,29.862999
7.242,126.664993,30.067001
14.273,126.688004,27.691
16.82,126.564995,25.358999
-92.25,127.167999,28.394001
-91.75,127.642006,39.570999
-84.816002,128.024994,49.995003
-72.549004,127.020996,52.572002
-66.606995,127.215996,49.056999
-53.419003,126.187996,36.010998
-36.343998,126.756996,18.677999
-33.218998,126.285004,18.282
-22.813,126.678001,16.837002
-20.188,127.097992,18.138
-13.004001,126.353996,27.500999
19.469,125.786003,23.548
-88.122002,126.067001,46.583
-77.128998,129.317001,53.034
-42.296997,126.761002,18.785999
-35.25,127.304001,14.359
-17.983999,127.845001,19.154999
-14.781,128.165009,21.938999
-8.11,126.084999,30.237
11.234,127.261993,28.462
16.188,128.167007,19.788
-93.125,130.328995,21.611
-92.188004,129.300003,27.534
-60.015999,127.545998,40.704002
-46.746002,127.748001,25.788
-44.562,127.996994,20.066
-38.343998,127.473,16.221001
-3.303,127.864998,28.695
13.109,128.718002,23.264
17.875,127.362,20.098999
-44.625,128.987,19.85
-41.733997,128.391998,14.215
-12.219,129.096008,20.295
-8.32,129.511993,23.846001
-89.681999,129.246994,42.806
-86.527,131.75499,47.150002
-70.271004,128.962997,50.91
-48.875,128.625,29.792999
-45.905998,130.166,22.071001
-2.078,130.063004,24.024
2.43,129.302002,26.200001
7.687,129.39801,25.493999
10.375,129.356995,24.486
-90.655998,130.777008,39.645
-44.875,130.091003,20.198
-44.375,129.813004,13.213
-43.219002,129.451004,13.317
-0.188,130.489014,21.086
2.688,130.572998,23.198
5.266,130.681,21.344
12.297,129.970001,20.005999
-91.25,130.067001,28.66
-66.890999,130.662994,46.799999
-64.109001,130.438995,42.824997
-62.476002,132.833008,39.115002
-56.82,128.662003,38.251003
-53.010002,130.199005,34.003998
1.406,131.412994,16.814999
3.125,131.056992,17.038
8.391001,130.802002,19.784
-91.687996,132.248001,24.323
-91,132.173996,27.117001
-90.5,132.287003,30.037001
-83.085999,130.742004,50.966999
-80.219002,132.281006,51.978001
-75.452995,134.242996,51.309998
-47.063,132.014999,22.988998
-90.25,133.350998,39.053001
-89.75,133.393997,40.196003
-86.012001,137.417999,44.225998
-82.675003,134.442993,49.556999
-55.110001,134.212006,33.371002
-48.827999,132.121002,26.893999
-90.625,133.240005,26.606998
-90,134.062012,38.924
-59.553001,133.397995,37.084999
-90.813004,134.608994,19.556999
-90.25,134.235001,24.193001
-89.75,134.778,38.923
-88.905998,136.160004,40
-50.935997,133.486008,29.398001
-49.625,135.313995,23.969
-90.5,134.807007,20.000999
-90,135.449005,37.652
-88.628998,132.632996,42.789001
-78.068001,135.285004,51.091
-46.280998,132.994003,17.653999
-90.25,135.556,20.635
-89.625,136.535004,37.967999
-67.010002,135.270004,44.787998
-64.984001,134.79599,41.150002
-47.796997,134.406006,20.208
-90.5,136.28299,20.633999
-90,136.314011,21.523001
-67.607002,138.899994,44.75
-48.827999,136.628006,18.171
-90.25,137.049011,21.776001
-89.75,137.550995,36.251999
-89.25,137.617004,38.155998
-79.388,138.517014,48.681999
-71.108002,135.459,48.901001
-61.855,138.974991,35.558998
-59.617001,137.666,34.054001
-53.996002,138.169998,29.082001
-51.148003,138.108994,22.877001
-90.686996,137.574997,21.267
-90,137.796005,22.41
-89.5,138.294998,37.012001
-83.462997,137.841995,46.542999
-89.75,138.917999,34.216999
-89.25,139.025009,37.392002
-88.152,138.456009,40.077
-63.528999,141.055008,38.311001
-48.921997,138.291,15.507999
-90.875,139.550995,20.629
-90.125,138.871994,22.027
-89.375,140.042007,35.612
-88.055,140.910995,38.198002
-89.75,140.132996,27.358999
-81.362,141.981003,44.646
-72.305,140.05899,47.514999
-64.907997,143.804001,39.960999
-53.187,140.841003,26.872999
-52.406002,139.746994,23.834999
-49.875,140.149002,16.629
-91.25,140.645004,20.755001
-90.375,140.488998,27.167
-89.375,141.237,27.992001
-88.936996,141.964996,33.927002
-52.313,141.187988,20.691
-91.5,141.367004,20.626999
-90.405998,141.496994,27.625999
-78.055,143.474991,45.178997
-54.586002,141.541,28.296999
-51.343998,141.595001,19.166
-91.875,142.446991,20.307999
-90.875,142.653,27.037001
-60.442001,142.222,35.773998
-58.905998,143.369003,32.809002
-52.75,142.235001,25.196999
-49.586002,141.080002,12.219
-91.375,142.546997,23.608999
-75.195,140.865005,47.572002
-57.927002,141.528,32.288998
-52,142.759995,18.657001
-50.375,141.794998,16.833
-89.351997,143.080002,29.957001
-85.031006,143.130005,40.237999
-91.875,143.891006,19.989
-83.343994,146.246002,38.298
-68.494995,142.929001,43.949001
-56.188,145.522995,31.042
-54.5,143.335007,28.691
-53.594002,144.106995,24.258001
-52.75,143.637009,23.671
-51.906002,144.343002,16.766001
-51.125,143.769989,15.893999
-49.827999,143.153992,12.046
-91.438004,144.242004,25.764999
-70.159004,145.472,43.196999
-58.355,146.812012,33.222
-54,145.492004,25.16
-52.687,145.237991,22.621
-48.841,144.311996,8.356
-90.129005,145.270996,27.363001
-71.928001,146.880997,42.431999
-61.193001,146.597992,36.906002
-54.234001,146.651993,26.238001
-53.281002,146.061996,22.921999
-52.063,145.623993,17.018
-76.117004,146.337997,42.780998
-89.313004,148.414001,26.207001
-79.891006,147.580994,39.626999
-50.934002,146.859009,13.474
-87.183998,145.862991,33.438999
-83.699005,149.090012,33.973
-76.655998,149.169998,39.255001
-66.542999,150.817001,37.479
-59.07,147.908997,35.218002
-53.468998,149.731995,24.677999
-91.085999,148.242996,22.223999
-55.094002,148.845993,28.045
-52.188,147.682999,19.125999
-44.449001,146.777008,5.187
-46.375,148.378006,8.185
-40.395,148.78801,2.487
-89.234001,151.136993,20.962
-65.213005,148.628998,38.605999
-57.147999,151.414001,31.604
-52.625,149.71199,20.266001
-51.875,150.310989,15.076
-86.828003,150.561996,27.130001
-52.812,151.60701,15.852
-86.843994,152.472,21.778
-83.022995,151.612,30.434999
-75.171997,152.366989,34.754002
-71.130997,150.625,38.125999
-53.25,151.600006,23.278999
-48.307003,150.088989,10.451
-85.141006,152.681,25.007
-79.051003,151.447998,34.379002
-67.405998,152.689987,35.166
-60.129002,152.022995,33.985001
-36.707001,152.345993,1.916
-79.015999,153.498001,30.163
-57.156002,153.888,28.393
-54.969002,152.363007,26.903
-50.808998,151.146988,12.381001
-83.686996,153.925003,21.879
-82.609001,153.218994,26.767
-76.406006,153.942001,30.844
-72.030998,152.647995,34.777
-63.859001,154.061005,32.205002
-59.687,154.289001,30.255999
-55.75,153.834,26.004999
-45.741001,155.194,8.011001
-80.936996,154.513992,23.987999
-78.530998,154.925003,26.233
-67.718994,154.662994,30.879
-58.5,154.590988,27.527
-55,154.272003,12.739
-53.086002,154.475998,12.09
-48.835999,156.516006,9.59
-41.313,152.419006,5.67
-32.682003,152.738007,-1.076
-73.75,155.132996,28.550999
-70.046997,155.173996,29.493
-65.655998,155.673004,27.454
-62.647999,155.141998,27.974001
-76.625,155.459,25.858999
-73.75,156.002991,25.938
-72.438004,156.002991,25.922001
-69.688004,156.008011,26.16
-68.5,156.022003,26.889999
-67.125,156.025009,27.016998
-66.25,156.005997,26.064999
-64,155.983002,24.954
-57.677998,157.259995,7.754
-43.215,154.085999,7.246
-27.441,156.889008,-1.138
-26.691,155.248993,-3.376
-73.5,156.195007,-3.572
-72.75,156.212997,-2.29
-70.936996,156.228012,-1.261
-68.686996,156.196991,-3.454
-67,156.153,-6.541
-77.063004,157.373993,-12.733001
-75.203003,157.399002,-7.192
-73.062004,157.218994,-3.253
-70.805,157.802994,-3.277
-68.418007,157.490005,-4.799
-66.625,156.884995,-7.284
-42.086002,156.62999,5.983
-37.75,156.797012,4.834
-72.976997,159.029007,-6.563
-50.344002,158.74501,8.885
-31.723,156.923996,1.523
-54.66,156.347,10.735
-44.903,158.929001,6.907
-39.797001,158.699997,3.197
-37.719002,158.153992,4.438
-23.362999,156.821991,-4.349
-51.490002,161.513,6.282
-34.023003,158.88501,3.085
-28.976999,158.811996,0.928
-77.063004,160.349991,-17.245001
-66.687004,159.406998,-10.538
-22.867001,159.496994,-2.7
-19.82,158.397003,-6.203
-76.468994,159.173996,-12.235
-69.882996,160.653992,-8.835
-53.729,162.279999,3.967
-40.223,160.294998,2.327
-31.125,160.442993,-0.012
-27.719,160.346008,-0.243
-15.891001,159.866013,-9.626
-78.390999,162.889008,-25.967001
-77.641006,160.64801,-20.586
-45.986,162.13501,6.408
-34.465,160.319,0.531
-25.07,161.716003,-3.994
-16.945002,161.115005,-7.578
-75.621002,162.035995,-15.105
-22.273001,161.479004,-4.358
-13.094,162.082001,-12.578
-72.362999,162.48999,-12.155
-68.905998,162.995987,-13.790999
-65.453003,161.824997,-17.232
-47.237999,164.376007,5.024
-33.581997,162.636002,-2.456
-28.809,162.819,-4.426
-18.890999,161.789001,-6.248
-77.078003,163.87001,-22.966999
-35.925999,164.447998,-2.082
-66.765999,163.673004,-17.866001
-49.43,165.731003,1.737
-21.576,165.434998,-9.889
-14.031,163.79599,-11.505
-78.608994,166.682999,-31.734999
-75.405998,165.455994,-21.276001
-73.702995,164.746002,-17.526001
-42.021,167.361008,3.428
-37.91,164.634003,0.609
-17.636999,163.753006,-9.571
-71.218994,166.185013,-19.114
-65.577995,164.638,-22.459
-40.992001,165.231003,3.957
-30.656,167.382996,-6.778
-28.414,165.776001,-7.234
-15.421,166.815002,-13.712
-11.109,164.429001,-15.290999
-77.094002,166.563995,-27.414
-39.397999,164.451004,2.712
-78.952995,168.587997,-35.565998
-69.063004,166.03801,-19.839001
-67.640999,166.63501,-23.601
-47.511997,167.774002,0.742
-73.917999,168.169998,-24.669001
-70.905998,168.494995,-24.071001
-67.844002,168.763,-28.401001
-66.016006,167.466003,-29.164999
-45.375,168.841003,0.831
-40.457001,170.039001,1.566
-10.656,170.481995,-19.674999
-74.546997,169.718994,-29.193998
-71.843994,170.533997,-29.530001
-69.516006,169.910995,-29.240999
-42.128998,171.518997,-1.207
-32.946999,169.130997,-4.33
-16.895,169.649002,-15.422
-9.085999,168.346008,-20.399
-78.530998,172.238998,-40.885002
-76.844002,170.136002,-34.166
-73.125,171.149994,-32.435997
-29.898001,170.054001,-7.799
-23.462,169.751007,-12.099
-74.686996,171.338013,-34.226002
-69.640999,173.012009,-40.996998
-68.75,172.289001,-40.139
-68.125,172.858002,-43.455997
-37.512001,174.618011,-3.298
-74.422005,172.537994,-36.729
-40.125,173.852997,-3.845
-68.832001,175.070007,-45.997002
-36.058998,170.43399,0.448
-32.32,173.007996,-2.93
-28.98,173.662003,-7.387
-25.948999,172.153,-11.066
-16.966,173.102005,-17.233
-74.952995,174.656998,-40.885002
-71.633003,173.715988,-39.951
-66.023003,173.356003,-47.476002
-20.406,175.046997,-15.558
-77.039001,173.473007,-40.580997
-8.695,173.726013,-25.084
-77.335999,176.417999,-45.692001
-72.191002,175.573013,-43.27
-66.582001,176.669006,-50.847
-33.813,177.479004,-5.614
-33.422001,174.983002,-2.469
-12.754,173.647003,-20.182001
-74.890999,177.46199,-46.132999
-71.703003,179.931992,-50.620998
-23.685001,176.421997,-12.773
-13.213,179.613998,-22.775
-68.773003,178.067993,-50.282001
-10.045,177.173996,-25.478001
-75.655998,179.455002,-49.493999
-63.789001,177.336014,-55.757999
-30.875,179.605011,-7.295
-29.129,178.716003,-5.821
-26.722,177.735992,-8.204
-15.59,178.085007,-19.886
-9.452999,178.393005,-27.303999
-21.578001,181.289001,-13.488999
-68.287003,181.237,-54.836998
-64.869003,180.042999,-56.887001
-27.039001,182.376999,-9.261
-25.539,181.537003,-9.028
-18.519999,180.5,-17.602001
-20.781,183.979996,-13.75
-10.793,181.445007,-27.023001
-16.886999,186.263992,-19.952
-15.151999,184.444,-21.769001
-22.656,184.977997,-12.663
-13.625,184.751999,-25.899
-12.941,183.442993,-25.064001
-19.664001,186.741989,-16.444
-14.75,186.168991,-24.019999
