-56.369755,53.891277,32.934841
-47.946621,56.163509,32.68734
-61.30582,54.591541,32.609356
-26.601072,54.832695,24.408333
-23.179539,55.596863,26.428747
-65.654686,58.08271,33.215809
-43.669567,55.097519,33.825211
-15.820595,54.214233,25.4678
38.657764,54.305305,14.023704
42.951847,55.629639,17.977715
51.766853,53.827316,19.509783
-61.018875,58.455582,36.703609
-38.1903,54.083599,8.637219
-37.7509,54.060001,8.38028
-38.517296,54.802921,9.147622
-38.0704,54.816902,8.85838
-29.374599,56.200298,23.9842
-28.490101,56.252701,24.556599
26.62516,55.460354,21.820539
-57.452614,56.591652,36.440334
-44.240189,60.379414,36.222652
-39.129623,57.269768,12.232822
-38.5247,55.648701,10.161
-38.178699,55.609402,9.72992
-29.933199,56.911301,24.018301
17.245321,59.176918,25.06074
29.134129,57.923664,23.757748
39.199093,60.880428,18.483479
61.568035,54.258087,18.751003
-38.675098,56.4333,10.9544
-38.3078,56.3978,10.563
-30.2871,57.657001,24.4338
-29.59,57.677299,24.656898
-29.081606,56.964085,24.51775
36.05228,56.118,29.140804
47.843945,59.180035,22.769915
-51.983459,56.277168,35.603958
-38.550251,57.149277,11.194136
-30.7029,58.391899,24.7339
-15.583605,59.263092,26.468737
-10.78072,57.275196,23.493065
5.906141,56.88237,25.533043
66.545181,55.151608,14.643367
-39.323257,57.935513,12.013969
-32.2668,59.0308,23.970402
-30.437876,59.153072,25.2285
-29.762384,58.475052,25.37285
-22.021418,61.944454,26.422537
-33.435272,59.711601,23.838308
-31.759817,59.83844,24.885479
36.702408,65.390739,17.275057
56.870491,58.434914,23.712271
67.561272,59.64529,21.838747
-53.656944,62.344608,38.779442
-39.922882,59.847935,34.522594
9.322673,64.142036,25.710871
10.36149,60.486217,28.402927
18.513199,63.937473,23.975309
28.651558,62.519478,23.195543
-46.885872,61.529312,34.491329
22.917963,62.950233,21.928652
32.143276,61.78857,24.486845
-33.208622,62.198139,25.465027
-63.207844,63.677879,37.560757
-42.669258,63.669197,33.62994
15.992921,63.851006,21.855196
19.682959,64.145073,23.256424
22.48764,63.797813,21.640247
23.285028,63.721794,21.004063
25.237915,63.774513,21.385918
65.05394,62.880741,25.799374
-7.832392,64.172523,19.771265
12.286324,64.764694,25.053713
13.516836,64.766891,16.788233
18.477737,64.746399,24.559807
15.212517,64.003487,16.058352
17.362043,64.067162,16.746935
19.351732,63.624905,14.050332
20.869596,63.747574,13.220325
74.692017,66.077545,21.70672
71.288979,59.57687,18.092192
-58.272839,67.098816,38.674992
-39.962494,65.176483,24.486872
-19.873772,64.685913,21.948708
12.030233,65.472794,24.782658
8.496045,64.810249,17.085386
14.680699,64.878082,16.889338
16.957983,64.804062,17.419773
17.6429,64.786903,16.9032
14.621553,64.211655,10.126293
18.452551,64.3479,11.928684
20.865601,64.372505,12.1447
26.872101,65.254501,22.272799
27.762341,66.718315,22.82695
-60.732574,69.610771,41.738827
-15.271002,64.307121,24.179457
8.265448,65.480927,16.716141
14.648562,64.920067,10.227111
18.587114,66.101128,9.796073
20.878956,65.002556,12.274639
26.862101,65.961304,22.252901
53.404728,64.389748,25.702368
-53.682789,70.926895,36.278118
-48.393982,72.6968,33.516296
-28.722292,65.128204,26.994812
-10.747979,72.86779,17.642736
11.643064,64.893005,10.065649
20.4258,65.631905,10.2429
47.349148,66.389832,23.34234
69.824028,69.403313,26.468422
-56.868259,71.747093,39.142647
-40.954018,69.13562,27.482012
-24.653978,66.711647,24.438358
20.418501,66.343102,10.227
27.665499,67.414406,22.672501
41.153366,67.054398,19.520014
-43.022873,68.42765,33.233768
-20.806824,69.34671,19.178953
-17.150045,69.710785,21.886526
21.426001,67.124298,11.0275
29.299269,68.313194,24.539671
-47.178478,67.155655,33.220394
-27.376047,69.204018,22.266788
-16.825987,65.011978,20.814985
-12.394479,70.353378,21.02001
29.101212,69.670151,24.280933
-63.152218,73.261841,41.74345
18.322523,70.674927,10.515912
23.019255,69.409805,12.933092
30.298759,70.494186,25.388103
-42.636559,74.224991,30.391264
-34.822121,70.854927,27.364717
-31.473547,71.200882,24.748341
22.172766,68.660225,12.401906
34.037197,63.007366,22.103266
42.50193,72.555244,17.529615
53.099358,73.195015,23.799902
-20.33596,71.357063,17.465311
61.860413,68.286537,26.646475
78.238472,67.939751,17.40225
-80.059105,71.417,11.254601
-78.944199,71.500999,12.2584
-62.804569,73.933685,41.315315
-61.563301,73.947701,41.478298
-59.064983,72.183182,41.97953
-31.951004,71.459496,22.243914
-17.282114,72.632881,21.245039
30.367895,73.319839,25.563635
37.635536,70.988098,26.262615
-80.942986,73.320847,11.182981
-77.899902,72.2854,13.128301
-76.347321,72.347145,13.869268
-61.223938,74.602036,41.045055
-58.816422,74.451683,39.056816
-58.438099,74.417206,38.690002
-57.995701,74.396202,38.437798
-34.400734,73.300972,22.535723
-15.896443,74.096153,20.314453
18.343401,74.753319,10.718894
24.081896,72.433586,14.887752
51.030415,75.534294,21.341999
-75.517929,73.105194,14.322215
-71.13871,73.236076,16.056643
-58.617302,75.092499,38.355801
-67.199501,73.6716,21.249498
-57.748501,75.048096,37.821899
-56.766537,75.023689,37.495247
-53.824387,73.973228,37.443039
-20.844181,72.686035,14.593506
-16.9006,73.592796,20.3008
25.010546,73.183281,15.561761
31.534847,74.131432,26.635792
-68.012001,74.344002,20.809
-67.142899,74.389,21.354
-66.357498,74.421196,21.7425
-64.964066,74.45594,22.190281
-56.406265,75.690887,37.094238
-54.807999,75.670502,36.8442
-36.764996,74.490044,26.246525
-36.816242,74.35614,22.607109
-21.7537,73.551903,11.2352
-21.350834,73.557961,10.9206
-13.794332,75.452431,16.688276
-7.054162,67.660789,-1.649598
22.935225,75.489578,15.300351
45.725254,74.227173,18.170422
47.21069,73.036812,20.777927
58.767002,73.732979,25.586861
-64.370102,75.169098,22.2183
-62.586273,75.175407,22.31304
-54.524998,76.328903,36.294701
-52.627327,76.281158,35.498512
-38.781094,75.711678,22.490362
-15.136107,74.638367,19.69594
44.881371,75.463051,13.970627
77.788368,74.181465,22.669708
-70.601265,76.217972,16.566137
-62.109398,75.870094,22.1264
-59.421894,75.917831,22.914431
-52.5033,76.900101,34.678799
-51.339245,76.832932,33.598152
-38.820251,75.907219,26.668335
-22.271252,73.016838,14.204558
-20.447712,74.309174,11.483646
48.282894,75.267418,17.287949
54.13316,77.867493,20.399973
-58.381302,76.707001,23.697199
-56.03392,76.788399,24.897324
-54.457741,77.564774,26.544451
-49.50626,75.754524,33.402153
-40.388039,76.727013,22.606873
-31.571409,76.91877,21.680727
-27.255367,77.131836,17.481176
25.623999,76.134102,16.6873
31.452145,76.938461,26.501261
34.148815,75.309708,28.669317
72.312241,75.513176,25.524155
-53.530106,77.743462,26.103491
-50.449635,77.482712,31.888477
-50.598942,78.490669,27.91304
-41.440746,77.633774,28.221525
-18.430027,74.47876,13.968177
26.692999,76.919098,17.604301
32.359398,77.693001,27.1131
46.673592,76.553284,10.808293
51.839622,76.478951,20.200472
-43.898666,78.551605,30.404984
-44.013958,78.28981,23.748989
-42.717674,77.504822,22.771057
-27.997992,78.781952,12.323606
32.524899,78.424904,27.421801
35.280621,79.662941,29.662092
44.68404,77.002487,10.135875
56.542072,78.047943,22.688032
58.28896,79.944427,22.145615
-67.422432,79.023338,17.317266
-66.846802,77.094414,21.285652
-60.961426,77.518013,20.811832
-57.937492,78.321289,23.444334
-47.817215,79.195045,29.671072
-46.204704,79.056664,25.422115
-44.760223,78.705086,22.144306
-21.089533,77.816925,11.226335
-9.914476,74.36026,12.420778
-8.356894,76.64003,5.309855
27.755136,78.758781,18.480076
39.152756,78.539413,29.851492
46.379326,77.458015,6.848139
47.351601,77.449005,6.57611
-82.624237,79.565094,9.781154
-56.94268,79.642311,20.41889
-55.239704,78.848969,24.231405
-51.49852,79.60009,25.146812
-51.658779,79.43692,22.144632
-47.587112,79.425232,22.291557
-1.810754,75.788986,-4.456741
27.042824,77.677643,18.237364
33.182514,79.486839,27.553425
46.397923,78.308029,4.173576
-52.540119,80.254898,21.461525
22.626928,80.590363,14.387074
27.04022,80.703735,18.477549
33.6782,80.544899,27.4172
-80.794258,78.778206,12.351465
-26.889975,84.549667,10.781996
28.391346,79.83902,18.613882
35.398388,81.504013,30.639576
82.830666,80.171135,16.343578
-37.540371,80.572678,22.240946
-18.738298,79.728073,14.042462
28.525908,84.104271,18.870554
60.741913,82.232849,21.880983
-76.138077,77.438477,14.681309
22.17783,82.088066,12.36271
60.220798,82.236107,21.9891
64.152481,79.028496,25.319277
74.729111,82.345146,23.508919
-18.185492,84.120247,13.556011
36.673279,85.947304,31.965748
46.695099,80.973999,-3.86699
47.047802,80.941795,-4.31154
69.713394,82.507072,24.39958
-83.673744,85.171646,9.741108
-71.089767,84.458488,16.295372
-60.304119,78.743088,18.825571
-52.867981,88.397942,21.397879
-46.532791,86.230644,21.891418
-31.318642,81.769882,16.402697
-20.926474,81.072723,10.707837
-10.685738,82.750656,7.716466
47.956886,82.942741,-5.864058
66.317451,84.753716,22.870449
-34.352104,82.420387,19.783215
0.295884,79.61969,-9.435802
24.557169,83.493507,15.270471
35.82975,85.102486,31.431757
77.959473,79.254143,22.842949
-31.341209,82.246841,12.75674
-12.496311,79.383842,14.471665
28.994801,84.811203,18.653101
62.761658,85.012367,21.345524
-64.816841,87.430367,16.979456
28.9174,85.509598,18.506899
43.136272,86.959518,31.520754
45.54818,82.355186,27.694918
48.335999,83.691704,-6.33891
63.104424,84.988518,20.880457
-80.136604,88.096008,12.084467
-42.03756,85.77182,21.728987
-20.133883,85.64415,9.187673
-17.84844,86.401268,12.047051
27.378489,84.781631,18.041985
28.395658,85.665321,18.61157
34.704742,87.004417,28.227734
48.79298,83.674881,-6.577351
79.752075,87.26664,19.490517
-36.386246,86.724144,11.815948
-12.73035,88.263504,9.603639
33.700531,86.997292,27.466875
49.4478,85.080803,-7.56271
64.827896,87.135597,20.8848
83.274529,91.461884,13.712524
35.686665,91.656532,28.375973
47.222794,92.029884,29.391268
49.493999,85.823997,-7.46979
64.6147,87.826599,20.487598
65.3256,87.845497,20.7374
-36.694817,86.580482,15.756794
-31.453108,90.278625,7.826756
-1.555978,81.028526,-2.011771
49.932201,86.542503,-7.74337
50.452602,86.534904,-7.856081
66.044304,89.229591,19.925262
-59.723274,86.066963,19.785105
-18.487331,89.366447,7.248768
50.909599,87.256203,-8.092621
-77.178825,86.897919,14.235258
-46.663708,90.424591,20.500513
-39.760052,89.107704,11.347721
-21.68211,90.840073,7.651731
37.6175,88.104767,32.02792
70.607704,88.500778,21.803902
-39.85899,88.644188,16.42725
-16.476366,88.987999,10.926941
-10.858718,94.050552,5.950893
51.005436,88.009544,-7.903357
67.261818,92.690826,17.89283
65.588524,89.889023,19.078575
69.274117,93.024902,18.578112
-81.154396,92.58802,10.83331
2.73166,89.444221,-4.260171
-3.631524,90.442352,3.682787
84.685455,85.145653,11.732675
-46.063553,92.798935,10.968586
52.592129,90.847015,-9.303353
-59.289173,96.653427,15.021436
-43.965408,91.732925,16.367056
-36.598915,91.703011,7.672282
66.897186,93.355972,17.209929
-81.413788,95.209518,8.997905
-39.523422,93.607315,5.285475
-32.907581,93.909416,4.332539
-28.815399,94.575066,3.53825
3.876297,86.833366,-10.413423
40.18721,94.828735,31.911106
-30.853203,93.898659,3.791267
52.819954,91.637306,-8.876598
-44.456669,94.426575,7.797547
-38.833202,94.084427,-5.927954
-35.959789,94.01078,-6.337527
-30.6231,94.587601,3.09943
-26.364758,94.431145,4.92761
-19.295822,101.084106,2.742682
40.373497,98.862839,30.797825
-68.082634,91.231934,15.814764
-57.011307,93.925087,18.948561
-50.425144,95.079185,16.732233
-42.471931,94.884094,0.739493
-35.888416,94.67392,-7.334238
-34.458202,94.638496,-7.91863
-29.6745,95.153,0.40771
-27.676891,95.174232,2.339091
-13.378457,93.85038,8.786342
34.866695,96.650513,23.263601
38.446644,96.573837,29.486351
75.607658,94.219566,18.374443
-34.104988,95.351128,-8.365794
-33.211201,95.316795,-8.8774
-15.097204,94.00042,6.264933
-13.065289,95.860664,5.833492
50.286106,90.343391,-7.74343
55.63493,95.28698,-8.983684
68.818352,96.867981,15.4187
71.718933,99.127411,14.796226
0.522124,94.201927,0.22548
36.185268,97.656975,25.128469
55.830097,96.070107,-8.61972
68.567596,97.554398,14.9484
84.457428,97.293243,8.341835
-25.792707,97.452629,2.41429
-25.221251,97.478714,2.360172
-50.003883,95.673706,12.093839
-47.836853,98.398102,7.366964
-43.3172,96.614349,-4.16057
-40.850174,99.626564,-8.511509
-33.936409,97.119576,-9.366109
-32.085308,97.454926,-10.065639
-31.655699,97.440506,-10.3654
35.357327,99.551201,23.125128
56.797176,97.518318,-8.991669
68.30368,98.814919,12.321336
39.001915,100.051949,28.579277
48.597393,99.29512,25.051439
-64.121605,100.421234,13.53115
-44.06065,100.734024,-5.856198
-23.26347,99.909561,0.131485
-3.415039,99.567604,3.814717
36.161137,101.975426,21.986752
36.315983,100.950966,22.724567
40.623741,101.405304,29.525097
48.164387,101.710472,-3.573231
54.546421,96.700706,-8.559536
56.787949,98.255745,-8.998539
-79.970268,101.287674,8.619512
68.568237,99.58532,12.793363
69.686417,101.695595,11.65556
-74.931633,96.022842,13.371545
-28.407656,101.162529,-9.677538
-23.508732,102.096077,-1.760747
40.065033,102.331772,28.302763
58.555202,101.213997,-8.92903
69.671196,102.420006,11.6291
71.093452,103.059425,10.970213
80.52639,96.743011,14.656789
-57.696011,103.072975,11.981599
-51.475239,101.714096,10.101968
-30.807106,98.930016,-11.046094
37.610012,104.311935,23.081934
40.858112,105.969269,24.162504
50.060307,95.78965,-8.468037
58.420479,100.45993,-9.192086
59.205601,101.960007,-8.782969
68.647697,102.962006,8.639791
-21.371082,103.913788,-0.281894
-13.526795,102.214561,3.984715
7.859059,97.089058,-12.042404
42.049351,106.261887,21.719027
68.6315,103.689003,8.61164
-73.628098,104.576546,11.012951
-27.530468,103.30661,-11.298779
69.95871,105.175117,8.921413
75.702957,104.779404,10.71887
-27.591131,104.078125,-11.474285
-22.2841,104.543999,-2.08224
-14.891761,108.211937,1.599899
39.897083,104.601402,25.795113
60.160999,104.151001,-9.17313
-27.165901,104.746994,-11.75
-21.2637,105.327003,-1.20288
36.74667,106.461815,15.9341
59.320797,102.709778,-8.560432
60.180702,104.890999,-9.13262
69.609703,105.856003,8.28815
-48.034351,103.53614,4.874501
6.547185,100.470261,-5.986195
60.621601,105.613998,-9.40145
68.794853,106.439392,5.632802
-78.236519,105.806267,7.834658
-27.177353,105.485741,-11.77011
-21.604307,106.021698,-1.880598
-18.958153,104.974098,0.212296
44.253582,108.186577,17.189041
46.376331,111.543709,-0.556699
-79.327576,108.393517,4.312057
-61.920906,106.123291,11.879817
-40.873081,104.868973,-8.148567
0.707095,104.891724,1.978503
68.2957,107.841995,4.66025
-43.338974,106.947525,-6.398299
-26.29166,109.495087,-11.821973
-24.624723,108.591507,-11.382114
-11.235511,113.545036,1.716698
55.35099,111.723778,-3.69944
58.422047,108.931259,-8.78135
60.768066,107.109337,-9.120488
61.275299,107.835999,-9.24566
68.829399,108.568001,4.57589
80.834473,105.763222,7.506911
83.810005,103.550156,3.906146
-75.148468,110.45816,6.973807
-18.236956,109.44043,-0.4246
-7.303861,107.040993,3.804522
61.291603,108.575005,-9.21194
68.701805,109.286003,4.32511
-54.936565,111.328842,9.123889
-18.69532,110.248016,-1.517196
61.7509,109.301003,-9.44419
68.625763,110.094345,2.99388
10.948177,106.49852,-13.361319
34.866508,111.398254,11.315134
71.801361,109.430603,5.869064
-23.934261,110.561798,-12.006577
-17.958601,111.181999,-1.50299
7.131295,109.932121,-3.373231
38.367382,114.233498,15.526043
67.706398,111.320999,1.21509
-63.383446,112.844597,9.991011
-23.893499,111.380005,-12.1173
-18.3008,111.882004,-2.17918
-17.568027,112.632599,-1.874788
38.895134,110.82122,17.647514
61.829128,110.787498,-9.299146
62.2803,111.510002,-9.53475
68.006905,112.026001,0.668637
73.602707,115.059586,1.400034
-74.399979,115.110023,3.532557
-23.2791,112.123001,-12.042701
62.240002,112.244003,-9.613211
67.878899,112.746002,0.41674
70.680443,113.136086,2.313422
-70.47998,114.72081,7.085716
-25.493252,114.092842,-13.19336
-23.2929,112.860001,-12.0684
-17.804001,113.343002,-2.33527
-2.773545,112.549065,2.73971
68.444099,113.477997,0.394694
-37.016563,110.93145,-11.292691
-22.8671,113.584999,-12.367599
-17.2875,114.070999,-2.45416
43.092571,111.655983,13.901282
42.612442,115.759834,-0.203018
63.063686,113.160072,-9.325687
-59.489243,118.458054,8.16033
-44.418816,120.103363,3.87643
-42.483185,113.124634,-1.194324
-17.5329,114.781998,-2.93873
6.225102,116.346458,-0.450871
35.711197,115.674362,10.838996
42.232384,115.527016,12.197784
42.391598,115.491005,11.3955
62.902306,116.635582,-10.596416
69.069122,114.335953,0.290253
-48.024818,112.184151,6.177391
-22.493799,115.043999,-12.7692
-17.193171,115.406815,-3.428165
34.170601,115.437004,-4.59254
34.543499,115.417999,-4.99769
63.222179,114.443352,-9.948399
79.753006,113.105949,-0.325585
-34.495457,116.659119,-12.677039
-17.615801,116.189003,-4.24374
-16.920422,117.034096,-4.976123
41.724094,117.67009,11.223495
-71.180565,119.643166,2.271101
-39.050186,113.017128,-8.664295
-22.830774,114.326683,-12.305665
-22.198399,116.497002,-13.325399
-17.397432,117.442421,-4.958037
34.075142,116.897568,-4.771488
67.418251,117.082916,-2.989207
80.993866,113.164246,-4.28876
-32.034348,116.47715,-13.053176
-22.612556,115.765831,-12.916316
41.920898,118.357002,10.5248
34.471008,117.617004,-5.134744
63.267498,117.345001,-10.9994
-22.244017,117.256905,-13.420659
-17.10323,118.41716,-6.306135
-13.89074,117.585335,-1.038491
12.640997,116.174583,-8.452423
67.285744,118.75206,-4.743332
-37.299839,119.653114,-3.249908
-21.407562,118.559509,-13.209211
-20.1359,118.745995,-12.6664
-14.604892,119.207016,-3.024668
0.336961,117.791183,1.871625
41.567867,119.779556,9.863667
34.455353,119.004791,-5.154866
63.434555,118.436775,-11.250383
-35.930817,124.649429,-2.058001
-19.575975,120.082603,-12.523496
-14.740291,120.263809,-3.750166
-7.107055,122.590034,0.153372
39.718983,120.162354,11.821436
67.655411,120.169067,-5.137661
-68.386215,120.518173,3.674945
-50.34454,120.265053,6.2211
-12.713133,122.098083,-3.448366
14.508543,114.435692,-15.846606
40.823822,124.923119,-0.938982
-30.944437,122.945808,-13.461264
-14.632401,121.362396,-4.057557
9.749313,122.38504,-1.394166
55.011463,119.423004,-2.003258
63.78933,119.993271,-11.823891
67.359474,121.856689,-6.320056
70.40464,121.505943,-4.476622
-19.777586,120.923317,-13.052003
-19.072498,122.408005,-13.9921
63.91227,122.044952,-12.444586
-62.845924,124.174713,3.604437
-14.388221,123.032181,-5.835865
-13.650119,124.079567,-6.607074
36.204102,124.105995,8.48006
30.910522,124.700508,-9.974185
36.139011,124.900276,-3.91829
48.071072,126.151619,-0.365936
75.853165,122.3806,-7.205135
-63.21925,127.027031,-0.086262
-19.146807,123.658958,-14.676363
-14.435425,124.754654,-7.093565
-3.395363,131.084259,-1.585672
19.957426,122.173546,-15.682512
23.275801,123.824997,-15.8832
36.116905,124.834335,8.312726
37.748089,124.822609,8.242206
60.192696,118.565598,-7.189275
67.376541,123.234367,-7.614981
-54.869434,124.962517,5.014987
-10.345306,124.28524,-1.969672
14.677763,126.201981,-4.090234
24.280701,124.608002,-15.0363
25.557642,124.626549,-14.691121
26.716551,124.618393,-14.780507
68.247261,125.8563,-8.306643
72.902931,127.950981,-8.918035
78.296555,125.189308,-10.22947
-17.214808,126.596252,-14.530762
-12.043644,127.06443,-5.506965
19.592026,125.702065,-8.463717
22.832787,124.449089,-14.794558
26.793343,125.500473,-12.263859
29.812885,125.363564,-9.745645
64.552025,123.836281,-12.66607
83.431725,124.70256,-8.959564
-29.571814,125.947311,-12.779044
-9.273396,127.317558,-3.262303
28.924927,126.629021,-8.489801
33.441753,123.923416,-7.8282
-47.059711,132.064926,2.25308
67.314926,127.408096,-11.478787
-60.231449,128.521942,0.828276
-41.428532,126.784027,2.269968
2.820726,123.286858,0.760468
8.295586,128.134659,-0.141883
26.36751,127.09536,-9.042951
31.770458,128.817322,-6.499578
87.826096,129.199387,-8.228864
-26.320637,126.389473,-16.852175
66.212074,128.356064,-13.160098
85.830887,128.725586,-9.670845
-31.669834,125.805771,-7.206632
-59.070957,129.948212,-1.18739
-53.410297,129.955948,1.771945
67.207008,130.80336,-14.094646
-14.383525,130.57811,-15.004603
-8.493829,130.887466,-4.319843
81.142815,132.910904,-8.383732
-55.250698,132.66011,-0.91705
-16.813465,132.193161,-16.710659
13.664554,133.852371,-0.984605
22.566168,132.021164,-4.217872
31.03075,131.868301,-4.336675
62.080593,134.359497,-13.383532
93.483665,129.938034,-7.555417
-13.987093,131.649521,-14.613372
-9.64625,131.632233,-6.760429
62.606701,129.323898,-12.157902
90.993675,133.534821,-8.321278
-6.716545,132.927994,-3.970317
71.569794,138.196732,-9.322137
-5.798709,135.524597,-5.065405
58.946541,127.463341,-5.863894
67.100029,133.59198,-14.594767
69.985519,130.768356,-9.85407
-24.774763,134.373688,-16.827093
-12.148033,135.02597,-16.20952
0.51081,133.32634,-1.017692
18.399576,131.463837,-2.829262
23.113529,138.33403,-1.861623
-51.231022,136.919724,-1.872326
-41.051632,141.026459,-0.37209
34.334522,138.401825,-1.317549
54.525642,131.88176,-2.901999
35.559902,132.249908,-2.319551
69.055588,134.437851,-11.096226
10.100649,139.668884,-1.801595
44.693233,134.274353,-0.570928
56.414654,142.238785,-9.567925
69.201736,138.196228,-10.714069
95.524208,135.097229,-6.523825
-96.710052,138.391113,-4.247299
-94.889938,138.361862,-5.218425
-26.326759,134.458801,-10.868382
-10.210239,142.355789,-16.705982
85.437035,137.060944,-6.204027
-99.436165,139.176102,-2.79477
-96.658333,139.134521,-4.145632
-82.857605,139.917999,21.152399
-81.447609,139.898148,20.557428
-94.260406,139.106949,-5.116292
-93.210365,139.144165,-4.191376
-51.2985,139.153,-3.49926
-8.848602,138.42215,-14.911209
-3.79866,139.414398,-7.21633
41.574684,140.808716,-1.18782
65.882164,138.073364,-16.0826
-86.660919,140.696075,22.637211
-82.724182,140.65506,21.400625
-81.157204,140.608002,20.014999
-80.835403,140.591995,19.5382
-91.532318,139.871826,-4.285144
-88.119911,139.838654,-5.538322
-60.976501,139.386002,-21.544899
-51.660999,139.873993,-4.2188
-37.139114,132.047745,-0.017244
-30.605545,133.980972,-4.054098
72.811493,140.538467,-6.908994
83.595551,143.597244,-4.902404
93.062653,138.327271,-6.256201
-87.079651,144.042084,23.509737
-91.941719,140.624222,-3.947831
-91.452797,140.617004,-4.12969
-79.394836,141.268066,17.915627
-76.602974,141.229187,16.66917
-87.534401,140.578995,-5.51843
-87.051201,140.57399,-5.70507
-75.790657,140.400284,-11.998026
-74.738861,140.393448,-12.19585
-72.962852,140.368256,-13.262628
-71.894768,140.321625,-14.577005
-48.967392,142.855621,-3.471977
73.3461,139.175217,-6.736836
77.242516,138.556244,-6.159435
88.360191,139.809311,-5.572757
-80.294434,142.007172,18.395081
-79.336021,141.999481,18.025314
-76.080582,141.954483,16.559414
-69.401291,144.729568,14.954092
-63.818733,141.826187,12.528223
-62.33886,141.816208,12.034309
-74.291283,141.135757,-12.462192
-72.952896,141.113998,-13.24
-59.757698,141.798004,11.4649
-58.74229,141.79039,11.203789
-71.328033,141.078995,-14.600104
-67.296875,141.001724,-17.187798
-63.884354,140.949249,-19.298027
-50.627647,142.06424,-4.447683
-42.254395,142.175247,-0.464048
-38.307617,141.971848,3.911717
-37.335228,140.784958,-1.251776
-7.560593,141.428284,-16.989174
-1.967417,138.668442,-4.128609
-91.087044,145.115372,23.647671
-61.701714,142.548431,12.149787
-59.68335,142.535736,11.602791
-58.216541,142.516998,11.108905
-55.767036,142.497131,10.380915
-49.727829,142.448318,8.633066
-63.341297,141.699997,-19.368
-62.853405,141.694992,-19.545401
-60.804676,140.1427,-21.208591
-39.289986,142.76207,4.214822
-22.128004,140.776581,-18.685097
3.14342,141.090683,-3.309438
20.07999,142.627914,-1.838654
40.285587,146.992905,-3.271212
48.982128,139.338791,-2.652975
57.63253,143.881424,-14.021231
-78.182289,143.909119,17.592222
-75.179413,141.936951,16.081093
-49.228298,143.172989,8.48726
-62.347698,142.442001,-19.688301
-61.571712,142.420929,-20.438217
-45.527706,143.029755,5.85091
-49.8895,142.841003,-4.14405
-46.617985,142.887985,-2.239778
-44.501682,142.71225,-1.446033
-40.897621,143.305023,4.470468
-35.350533,141.628281,2.997622
-32.986347,143.752899,0.417442
-33.977985,142.787674,-2.44923
-23.086161,142.765121,-13.515326
-1.002701,142.772385,-6.799229
0.232472,142.782974,-6.650259
-64.048706,143.872147,13.150263
-50.329777,145.002975,9.389892
-48.263599,143.863998,7.0548
-47.1926,143.861755,6.899811
-44.477001,143.820999,5.44261
-48.3494,143.600998,-3.38073
-46.820679,143.631424,-2.628784
-28.311827,143.369049,-5.572424
-5.87935,143.272995,-16.4769
-4.427599,143.285095,-15.890613
1.237036,143.5858,-6.02223
31.283915,144.339386,-1.826126
-82.332718,142.481781,21.51256
-44.81675,143.836639,5.913579
-42.673199,143.874451,4.419694
-30.460526,145.028229,-3.925862
-27.727425,144.182922,-4.682833
-3.820096,144.033737,-15.844417
51.981522,142.883942,-5.800026
76.037704,142.51384,-6.334846
-73.854385,146.387909,14.648142
-48.721291,145.831497,7.878143
-25.255541,145.130157,-2.888449
-26.652584,144.634018,-6.787294
-23.937948,145.579788,-10.162053
4.045972,145.326263,-5.603213
63.046597,140.989166,-15.726464
72.496483,148.201492,-7.118334
81.479271,150.821991,-5.570906
86.542511,146.440292,-3.932437
-89.191032,147.147354,20.972286
-81.569847,144.199753,19.129242
-37.284325,145.256439,1.99234
-34.034428,146.224854,1.890139
-6.39257,145.530487,-17.129084
-2.517279,145.508453,-16.717501
3.054754,145.074997,-6.129733
45.695534,148.946976,-6.506236
78.22731,146.98082,-5.526955
-23.478687,146.416046,-11.446475
-20.780968,145.296555,-20.489111
25.455551,147.319168,-2.702765
60.249653,146.136353,-16.366423
84.204704,146.850418,-7.454222
93.931633,147.279709,-3.229801
-54.895615,144.467514,11.000306
-43.999214,144.601273,5.162126
-20.723698,146.632599,-4.731289
-20.371283,147.278687,-5.242069
2.200772,147.086365,-10.525646
3.893388,147.781967,-9.449617
10.139579,145.659851,-4.001991
75.851051,146.22168,-8.663623
-80.123604,148.470673,15.970285
-33.158588,147.871231,-0.525083
-20.246601,147.672989,-20.9298
-0.489193,147.888916,-17.000565
-71.415207,149.075226,12.277648
-68.863754,149.857956,11.688695
-50.844513,149.084686,8.001231
-27.598789,146.3414,-0.695267
-20.348621,150.833084,-4.496977
-13.234337,148.680634,-6.827389
-19.888193,148.429962,-21.429977
5.114842,148.369843,-9.01839
6.554938,148.61554,-7.792913
8.706973,150.19458,-8.24945
-85.995232,149.173447,19.076859
-74.685745,149.712845,6.792466
-70.856422,149.867935,12.292767
-61.071991,147.405777,11.784302
-12.637332,149.471603,-7.088473
-1.789486,152.236069,-19.491367
2.429867,149.269211,-16.021463
-91.116661,150.488785,19.808208
-74.014442,150.49118,6.460719
-71.811195,150.893112,5.468485
-68.472404,150.578079,11.35333
7.1139,150.156998,-9.03776
9.852078,151.41304,-9.027323
33.766899,148.050247,-2.94066
49.471447,149.409714,-9.620091
-95.3041,147.558121,21.518393
-82.468315,150.828552,15.209126
-66.504654,150.676239,10.569634
-24.214615,146.751663,-3.633025
3.022501,150.718552,-17.058422
8.90484,150.904007,-8.92187
-97.752678,152.748077,12.397785
-95.886047,151.842575,16.72681
-88.683647,153.308334,16.333874
-86.298325,152.680634,17.107136
-83.104355,151.817276,15.327383
-85.059029,151.402008,9.485121
-69.75882,151.199509,4.449686
-65.311363,151.65509,10.232845
-64.175064,151.959747,9.632185
-38.122078,153.405518,1.307657
-30.643736,149.01857,0.33965
-25.598461,153.343338,-0.766949
1.142506,153.412857,-17.363813
1.326767,148.690659,-16.191654
4.92673,151.509781,-17.305298
15.312202,151.566422,-6.999758
27.785496,152.721603,-5.754957
37.468754,151.918015,-6.20329
57.882484,149.31015,-17.200787
-85.58503,152.309525,9.587198
-74.87159,149.228745,13.223322
-68.786682,152.027817,3.918324
-67.475143,152.824875,2.976344
-63.435436,152.717178,9.410174
-46.39999,152.34845,5.053766
6.30737,152.199066,-16.641932
11.849245,152.089462,-7.936665
12.898072,152.484634,-8.434135
19.582365,151.543381,-5.501491
32.941498,153.779663,-7.050776
41.075756,153.182571,-10.110368
44.947517,152.649704,-11.722306
-94.043579,153.832306,13.971683
-66.61496,153.723206,2.097755
-62.746872,153.555084,8.855365
-54.725643,152.601074,7.385871
-38.863541,152.014755,2.763108
-12.840289,152.105118,-6.656742
4.094259,150.761459,-17.322308
8.371819,152.961563,-16.254313
13.583793,153.791641,-9.893362
36.550587,155.087036,-11.015125
-92.65036,154.90625,12.407478
-90.777557,154.195648,16.254576
9.226309,153.85199,-17.178999
15.021651,153.868103,-9.385746
21.76086,155.272812,-9.398452
22.767815,154.664948,-8.752298
27.453955,156.549469,-10.354233
50.148705,150.830688,-15.292009
52.778179,149.243118,-14.740207
10.665504,154.489929,-18.035528
15.329347,154.605148,-9.928569
19.321907,155.356262,-9.882707
42.746422,154.49649,-16.033426
46.44099,152.981918,-15.079624
-57.802471,155.615234,7.549442
-55.722099,155.610992,7.12965
-47.428364,156.99527,5.344691
3.770103,155.744019,-20.338533
11.280369,155.239792,-17.971949
13.599775,155.34877,-17.054571
16.825048,154.836349,-10.772892
23.639063,156.5728,-14.388889
47.298077,157.734512,-18.424162
-96.790024,156.080978,13.714228
-67.900757,155.99855,-16.976706
-55.269646,156.340759,6.894684
-52.629616,156.326447,6.435263
-39.931141,159.620346,3.490658
6.469054,155.68869,-17.082346
21.833363,156.080856,-11.032228
33.438549,156.258789,-13.327236
-75.160172,156.783997,-13.879944
-70.355766,156.010941,-16.133625
-67.131203,156.752716,-16.597343
-64.692589,156.740692,-17.488535
-52.334789,157.059494,5.868953
-49.650314,157.05249,5.472543
-48.623718,157.03302,5.209805
-42.322586,155.930283,4.506417
-23.522919,155.479324,-3.464181
15.844125,156.239792,-17.682371
30.469707,156.751251,-12.706721
-64.011101,157.490967,-17.277317
-61.573444,157.481125,-18.171614
-49.408199,157.778992,4.80779
-48.8853,157.778,4.69991
-51.816399,157.686996,-2.25744
-47.214058,157.704117,4.595178
-29.907576,158.723999,0.422809
-18.702875,157.100281,-5.651193
22.62088,157.5401,-17.914701
28.620804,157.517609,-16.750038
33.748962,156.894669,-16.062765
36.993824,156.611206,-16.591497
-80.349541,158.559799,-11.449681
-60.106224,159.031204,-17.521023
-60.741501,158.249008,-17.668699
-51.8321,158.438995,-2.29024
-44.952248,158.344849,2.570673
-75.030983,159.841492,-11.663301
-51.842903,159.190994,-2.31331
-50.7953,157.977097,-1.789524
-17.625029,158.539108,-3.604152
14.726893,160.713242,-18.186947
18.308695,161.143173,-19.79674
-87.443199,159.921005,-4.21738
-86.306458,162.180801,-4.257641
-82.926613,160.161377,-9.729618
-68.118851,159.814438,-13.947191
-59.816841,159.779053,-16.983299
-48.810562,160.059937,0.279615
10.496762,158.80957,-19.575018
40.532249,155.646301,-15.52669
-80.833931,162.394516,14.130303
-78.842606,160.903,13.5341
-78.350502,160.901001,13.3751
-86.787582,160.634048,-4.026304
-80.815834,160.605988,-10.542449
-79.016571,160.610611,-10.41242
-78.417816,160.608521,-10.365437
-74.866249,160.599045,-11.337881
-62.701138,160.865646,11.33308
-45.717648,160.641449,3.505904
-36.12257,159.665405,0.134315
-20.30784,160.852585,-4.727461
-9.728052,163.100906,-7.101298
19.311834,156.799789,-17.029272
-86.889107,161.427002,-4.26682
-82.121002,161.406998,-6.26103
-82.534302,161.386993,-8.2259
-81.876541,161.38002,-9.211398
-80.813583,161.362091,-10.532032
-68.134407,161.638275,13.04533
-67.095802,161.634995,12.8285
-78.289101,161.367996,-10.112101
-66.102371,161.629471,12.527598
-62.630901,161.613007,11.464643
-36.834045,163.550751,2.736194
25.388794,161.371307,-19.197994
40.786674,160.072571,-18.890024
-78.301598,161.643265,13.464499
-85.211884,162.184799,-4.384571
-82.949554,162.167404,-5.616972
-82.0578,162.167862,-6.1492
-71.195297,162.391998,13.7959
-81.922798,162.143005,-8.15996
-81.752899,162.136002,-8.96838
-69.52916,162.386719,13.6726
-66.529297,162.376999,12.807
-66.0224,162.375,12.6757
-47.956242,160.776672,5.425232
-39.263504,162.485504,1.943571
32.551971,161.859665,-19.175833
-77.126999,163.130005,13.4995
-76.104172,163.127197,13.25351
-84.752327,162.930664,-4.613665
-82.902199,162.919113,-5.525208
-71.994995,163.144012,14.456699
-70.987572,163.143677,14.181916
-70.519997,163.137009,13.9772
-69.467125,163.142059,13.789199
-68.027496,162.38475,13.24337
-64.549881,163.496017,12.580688
-55.916981,163.221741,9.278745
-33.111095,163.525116,-0.209048
-91.399498,163.697006,-2.91142
-90.326324,162.191559,-3.075551
-75.508156,165.292786,15.5373
-74.574715,163.891708,15.034041
-84.686844,165.36821,14.470326
-82.865135,164.549973,13.721186
-90.836601,164.449005,-2.94176
-90.330803,164.447998,-3.08374
-80.714584,165.369629,14.338952
-77.568436,164.760498,14.058236
-59.688328,165.15332,12.158553
-45.068462,163.355164,4.507994
-24.79084,163.442398,-2.535432
-81.875237,165.368347,14.327156
-72.012688,163.882172,14.423409
-17.106836,166.051636,-4.758442
-93.72377,165.95813,-1.808966
-68.072731,165.697113,15.085054
-94.110802,166.714996,-1.42428
-93.709404,166.712997,-1.77349
-84.585159,167.598328,14.658801
-82.854591,167.26651,14.62571
-80.015228,166.697815,15.441932
-43.967392,166.729645,5.730547
-18.41106,167.562225,-8.438463
-86.618172,167.59053,14.092286
-94.125801,167.466003,-1.45572
-85.274895,167.595993,14.4472
-83.984512,168.13414,14.68946
-63.767593,168.98085,10.418483
-50.613575,168.603043,6.503454
-37.741253,166.020981,1.609974
-30.728264,166.019562,-0.958385
-85.868797,168.337997,14.4151
-85.214302,168.339005,14.559
-81.952888,168.610306,17.382637
-80.120712,167.44194,16.776646
-71.183685,168.90741,11.744493
-67.765579,167.837723,14.685233
-68.91539,168.555389,11.490792
-63.6362,169.109421,7.573615
-20.950556,168.003021,-5.000492
-85.584023,169.468307,14.681293
-45.147129,169.240768,3.300506
-38.459423,170.085068,1.083319
-31.303871,168.651443,0.570519
-83.131485,169.48494,17.67392
-73.29364,169.375519,16.943272
-64.131454,169.832428,9.500588
-65.472374,169.762192,6.112244
-61.545616,168.601837,7.923284
-57.828926,168.63002,7.833191
-57.918118,170.836548,4.736103
-53.074791,171.772919,5.374146
-87.160866,170.195633,14.30203
-82.151115,173.54718,15.496264
-71.881119,170.271652,9.893766
-66.109795,170.500626,10.649107
-68.696342,170.463943,1.319434
-98.162025,171.223572,-2.605871
-84.700401,170.987717,17.723293
-73.066223,171.91507,4.938971
-69.620384,170.764023,10.695107
-98.557198,171.973007,-2.23893
-98.1045,171.973007,-2.48635
-87.072296,172.069992,17.5473
-72.061188,171.274872,4.517069
-67.165344,172.699249,0.525321
-29.128782,170.798767,-1.508846
-98.543999,172.725006,-2.21433
-87.653801,172.809998,17.538198
-87.021301,172.811005,17.641199
-79.020996,171.294479,16.953049
-76.862045,172.337479,9.057336
-73.867691,171.601273,6.460596
-70.097137,171.272217,2.460558
-63.323078,173.480759,5.570446
-88.961876,173.548615,17.252857
-87.6315,173.550995,17.578402
-85.995789,174.715469,17.530592
-78.654449,173.504898,15.598406
-80.684898,174.207916,9.309819
-74.974075,173.647995,1.83962
-46.759872,174.788986,2.525715
-29.403965,174.885727,-1.102496
-15.402732,171.137878,-5.80449
-71.284302,175.250946,-0.508847
-68.727783,175.543579,-0.30876
-64.872948,174.986618,4.325161
-34.692753,175.197525,-0.554882
-23.783548,172.538956,-3.521454
-10.003701,174.441711,-7.743877
-89.297424,176.717896,16.787378
-84.066795,174.284058,10.30068
-49.223385,173.907867,3.7104
-36.882164,174.397598,1.633058
-85.65876,177.708328,10.113475
-59.034283,175.48587,7.459891
-39.899876,175.461838,0.735029
-31.046965,176.701355,-2.530493
-23.348358,175.732925,-3.08132
-22.515987,175.735107,-3.730657
-20.781366,174.677338,-5.549879
-65.180496,176.994217,4.696765
-41.542572,177.941513,2.021323
-23.455,176.486008,-3.30204
-30.420101,176.511002,-18.275499
-29.9758,176.512009,-18.539799
-22.007999,176.492416,-4.006695
-57.531101,177.537186,0.769465
-57.80875,178.206024,-2.088657
-54.591278,175.518265,5.044309
-47.316708,177.966003,-0.283237
-37.970539,177.544846,-1.181931
-30.286499,177.27124,-18.008984
-29.315313,177.274185,-18.380079
-89.03418,179.632111,13.209805
-68.126221,177.981461,-1.413071
-67.066315,178.420898,-2.307711
-62.980309,177.687592,5.562564
-60.043972,177.79985,3.815386
-56.791779,178.003006,2.73754
-53.666,178.626968,2.098122
-44.779312,177.146896,0.919459
-43.722603,177.985046,1.159067
-36.314541,178.394241,2.505109
-28.523928,177.275818,-19.104473
-64.062866,178.790558,-2.324135
-59.007683,178.748627,-2.691291
-56.220486,179.44986,-3.290805
-47.449318,178.717529,-0.040948
-49.438271,178.758484,-5.612931
-47.603237,178.518723,-5.93122
-40.079018,180.206543,1.503685
-34.721367,180.151718,1.168208
-24.365385,183.028641,-18.395657
-87.162239,178.591476,5.588807
-80.436775,177.714493,7.495037
-45.367355,180.25032,-7.898075
-45.811527,178.768448,-6.462059
-36.131981,182.447266,2.506643
-79.536324,178.36702,3.424129
-49.631855,179.516418,-5.800834
-33.991936,181.389252,-1.543134
-83.846466,181.503754,5.994604
-34.700462,182.47052,1.870144
-32.502522,182.252625,0.702378
-22.296465,180.548538,-20.750118
-43.787399,183.332001,-13.885
-42.543736,183.329773,-13.707683
-34.287201,183.225006,1.54293
-33.360229,183.230042,1.087318
-25.972691,186.604019,-19.02186
-41.952251,184.092957,-13.67141
-40.797691,184.087341,-13.680777
-32.980202,183.981003,0.697239
-32.5397,183.983002,0.425554
-27.651066,184.001266,-4.884517
-39.780697,184.850006,-13.9581
-32.131599,184.735992,0.087782
-31.256952,184.742584,-0.471418
-31.200491,183.771942,-1.365715
-29.035025,185.514023,-2.939328
-33.217999,184.873993,-16.9776
-38.32803,185.611832,-14.513493
-30.821873,185.488937,-0.7561
-27.655069,186.281158,-4.784505
-40.253132,184.845047,-13.748757
-37.909576,186.376556,-14.836569
-35.746529,186.381378,-16.229902
-28.63842,186.266037,-3.297101
-33.235882,186.393188,-17.020798
-35.473076,187.153778,-16.874674
-34.603397,187.160004,-17.4426
-14.510813,186.534485,-22.490242
-37.601967,194.626556,-17.805756
-39.223377,185.5961,-13.99783
-33.263691,195.62561,-19.52622
